# .PCD v0.7 - Point Cloud Data file format
VERSION 0.7
FIELDS x y z rgb
SIZE 4 4 4 4
TYPE F F F U
COUNT 1 1 1 1
WIDTH 288
HEIGHT 1
VIEWPOINT 0 0 0 1 0 0 0
POINTS 288
DATA ascii
-1.4716321 -0.026827645 0.67574877 4294901760
-1.4384454 -0.034140568 0.67887521 4292739072
-1.4776849 -0.031875495 0.67891431 4294902274
-1.4788809 -0.030537976 0.67889172 4294909984
-1.4789094 -0.028290708 0.67890954 4294914610
-1.4733075 -0.028282469 0.67888737 4294901760
-1.4785632 -0.027410107 0.67888218 4294915638
-1.4734094 -0.027461503 0.678774 4294901760
-1.4776006 -0.026462665 0.67885423 4294852672
-1.4765426 -0.026222248 0.67884302 4294901760
-1.4755728 -0.026262084 0.67885721 4294901760
-1.474543 -0.026427481 0.67879933 4294776599
-1.4424706 -0.037394427 0.67970574 4293132288
-1.4415787 -0.037536263 0.67967248 4293984256
-1.4453579 -0.036305506 0.67983586 4294901760
-1.4443419 -0.036814716 0.67985904 4294180864
-1.4465679 -0.035413831 0.67980796 4294903045
-1.4473964 -0.034349941 0.67967254 4293726995
-1.4426484 -0.034253851 0.67967761 4294901760
-1.4415493 -0.03452602 0.67982322 4294901760
-1.4402682 -0.03443576 0.67982751 4294901760
-1.4393438 -0.034210213 0.67963803 4294909727
-1.4383937 -0.033664498 0.67971331 4294516511
-1.4378595 -0.033244491 0.67963487 4293463309
-1.476368 -0.032048732 0.67909575 4294906129
-1.475472 -0.03207409 0.67903155 4294918208
-1.4484476 -0.032463793 0.67952311 4293474617
-1.4373689 -0.032665391 0.67965156 4294117898
-1.4781559 -0.031183204 0.67906535 4294903045
-1.4774939 -0.03137112 0.67927545 4294901760
-1.4765975 -0.031541225 0.67947841 4294770688
-1.4756229 -0.031575985 0.67946661 4294312450
-1.474501 -0.031610023 0.67906964 4294118669
-1.4486945 -0.031631764 0.67952526 4293336092
-1.4783623 -0.030343825 0.67928487 4294908699
-1.4776992 -0.03055558 0.67972964 4294912297
-1.4490868 -0.03052544 0.67986268 4294912811
-1.4488095 -0.030507348 0.67927474 4293066752
-1.4784702 -0.029416859 0.67939937 4294911783
-1.4779841 -0.029411443 0.67992622 4294915895
-1.4491205 -0.029589679 0.67989171 4294906129
-1.4488806 -0.029426919 0.67933595 4292935680
-1.4784011 -0.028522518 0.67932606 4294918465
-1.4778157 -0.028379625 0.67979807 4294915381
-1.4490643 -0.028542947 0.67984331 4294904587
-1.4487664 -0.028523615 0.67923754 4293132288
-1.4364554 -0.028522102 0.67961687 4293930028
-1.4782695 -0.027772272 0.67912793 4294906643
-1.4775125 -0.027534464 0.67944396 4294921292
-1.4765733 -0.027324444 0.67965853 4294913839
-1.4755448 -0.027274363 0.67962861 4294901760
-1.4744953 -0.027422508 0.67931241 4294901760
-1.4738715 -0.027809933 0.67911756 4294901760
-1.4487146 -0.027487025 0.67969227 4294050820
-1.4371603 -0.02715572 0.67977756 4294920007
-1.4367458 -0.027636999 0.67962217 4293867833
-1.4772625 -0.026801594 0.67904884 4294903045
-1.4765072 -0.026777172 0.67918366 4294903302
-1.4755769 -0.026731826 0.67914039 4294901760
-1.4749048 -0.02694165 0.6791389 4294901760
-1.448336 -0.026541715 0.67956692 4294181635
-1.4375179 -0.02642037 0.67957133 4293935425
-1.4369413 -0.026965611 0.67925054 4292345856
-1.4481978 -0.02586614 0.67979801 4294903302
-1.4477738 -0.025477769 0.67963493 4294312707
-1.4383388 -0.025773507 0.67984462 4294902017
-1.4472445 -0.024700692 0.67968291 4294315791
-1.446799 -0.024251219 0.67956638 4293856782
-1.4403338 -0.024881534 0.6797055 4293459968
-1.4397495 -0.024921153 0.6799317 4293918720
-1.4463145 -0.023745192 0.67966282 4293924888
-1.4455649 -0.023312077 0.67944974 4293463823
-1.4453496 -0.022972956 0.67982841 4294911526
-1.4444189 -0.022616282 0.67953807 4293856525
-1.4433688 -0.022181198 0.67992359 4294903045
-1.4428043 -0.022231802 0.67910445 4294903559
-1.4386625 -0.022193739 0.6795789 4294901760
-1.4424006 -0.021928953 0.67982274 4294902017
-1.4413389 -0.021781199 0.67965031 4294901760
-1.4405633 -0.02185213 0.67971754 4294901760
-1.4395649 -0.021963101 0.67960656 4294901760
-1.4422966 -0.037039056 0.68043602 4294903816
-1.4416035 -0.037151393 0.68039191 4294906643
-1.4404873 -0.037145298 0.68035573 4294913839
-1.4454314 -0.03605397 0.68024606 4294901760
-1.4444941 -0.036370441 0.68042195 4294639873
-1.443434 -0.036467932 0.68057078 4294904330
-1.4424984 -0.036537312 0.68064511 4294905101
-1.4415005 -0.036503382 0.68068117 4294909727
-1.4405341 -0.036417581 0.68069869 4294914096
-1.4394239 -0.036477465 0.68059289 4294916666
-1.4385928 -0.036504064 0.68045712 4294919750
-1.4463967 -0.03527024 0.68027341 4294902788
-1.4454992 -0.035485078 0.68058145 4294902788
-1.4445124 -0.035507489 0.68072253 4294904587
-1.4435613 -0.03550671 0.68074542 4294903559
-1.4424872 -0.035436947 0.68070835 4294902531
-1.4415408 -0.035488453 0.68068916 4294902788
-1.4404912 -0.035504077 0.68070745 4294903045
-1.4394182 -0.035442255 0.68073761 4294903816
-1.4385184 -0.035467811 0.68074673 4294911783
-1.4376262 -0.035516284 0.68067461 4294913325
-1.4367379 -0.035546441 0.68040562 4294385439
-1.4358078 -0.035308015 0.68010724 4292870144
-1.4472357 -0.03435174 0.68031496 4294906129
-1.4464986 -0.034450326 0.68062007 4294903045
-1.4455202 -0.034549154 0.68073785 4294904073
-1.4445373 -0.03451341 0.68067509 4294902017
-1.4435332 -0.034550156 0.68049592 4294901760
-1.4424696 -0.034717374 0.68040359 4294901760
-1.4416254 -0.034838602 0.68040961 4294901760
-1.4405538 -0.034716006 0.68030983 4294901760
-1.4395053 -0.034594905 0.68043411 4294902531
-1.4385875 -0.03436847 0.68054026 4294904844
-1.4375331 -0.034520481 0.68074346 4294904330
-1.4363537 -0.034430813 0.68067867 4294909213
-1.4359932 -0.034658041 0.68060368 4293263360
-1.4348615 -0.034338243 0.68006307 4293853184
-1.4480652 -0.03336912 0.68014938 4294918465
-1.4475023 -0.033512998 0.68051845 4294906129
-1.4465307 -0.033547111 0.68075103 4294904330
-1.4454079 -0.033515036 0.68062407 4294901760
-1.4444495 -0.033639789 0.68029767 4294901760
-1.4382654 -0.033760034 0.68031126 4294908956
-1.437533 -0.033492025 0.68050063 4294905872
-1.436564 -0.033485368 0.68074393 4294905872
-1.4354378 -0.033455607 0.68065631 4294909470
-1.4483131 -0.032489944 0.68033171 4294917437
-1.4475948 -0.032564417 0.6806767 4294906129
-1.4466169 -0.032473132 0.68071938 4294903045
-1.4456394 -0.032650068 0.6804201 4294901760
-1.4449033 -0.032924239 0.68015283 4294901760
-1.4372271 -0.032639321 0.68028182 4294905358
-1.4365634 -0.032718446 0.68065464 4294905101
-1.4356006 -0.032847445 0.68076092 4294907928
-1.4484922 -0.031435765 0.68043411 4294913325
-1.4474891 -0.031549104 0.6807608 4294907928
-1.4466623 -0.031489946 0.68065327 4294902274
-1.445673 -0.031618353 0.68010014 4293918720
-1.4773655 -0.030362604 0.68034512 4294913582
-1.4766482 -0.030782068 0.68060082 4293394432
-1.4490008 -0.030235682 0.6801371 4294907671
-1.4485267 -0.030495295 0.68051982 4294910241
-1.4474666 -0.030491916 0.68074179 4294905615
-1.4466974 -0.030477652 0.68061334 4294902531
-1.4776684 -0.029470459 0.68046844 4294911012
-1.449017 -0.029569644 0.68015105 4294906129
-1.4485389 -0.029550333 0.68057626 4294910755
-1.4474257 -0.029492499 0.68073195 4294906129
-1.4466809 -0.029548727 0.68059939 4294444293
-1.4362738 -0.029133221 0.68030035 4294909213
-1.4355421 -0.029245347 0.68068564 4293344830
-1.4345235 -0.029353971 0.68070948 4294904844
-1.4774449 -0.028499169 0.68045449 4294904330
-1.4768934 -0.028123196 0.68085539 4294902017
-1.4485726 -0.028526863 0.68046623 4294909470
-1.4475019 -0.028569905 0.68074673 4294905615
-1.4467136 -0.028474987 0.68062687 4294904587
-1.436331 -0.028402302 0.68034554 4294920264
-1.4355825 -0.028533023 0.6807 4294908699
-1.4345795 -0.02854006 0.68069315 4294903302
-1.4770919 -0.027946964 0.68020034 4294911526
-1.4765108 -0.027780831 0.68042362 4294904330
-1.4755261 -0.027759444 0.68033624 4294901760
-1.4484316 -0.027538132 0.68043274 4294907671
-1.4475479 -0.027513605 0.68075252 4294905872
-1.4465953 -0.027391737 0.68066633 4294907414
-1.4370462 -0.027138878 0.68003756 4294920007
-1.4364893 -0.027508557 0.680471 4294910241
-1.4355315 -0.027507931 0.6807645 4294908185
-1.434631 -0.027571306 0.68065339 4294902531
-1.4335895 -0.027671933 0.68012047 4293328896
-1.4482663 -0.026519394 0.68027437 4294905872
-1.4475756 -0.026502885 0.68066043 4294906643
-1.4466722 -0.026543723 0.68074089 4294907671
-1.4456856 -0.026395842 0.68052834 4294645784
-1.4448502 -0.026489243 0.68010843 4293001216
-1.4373136 -0.026492726 0.68029439 4294905615
-1.4364954 -0.026476402 0.68068254 4294904073
-1.4354842 -0.026549198 0.68072748 4294903559
-1.4343454 -0.026720967 0.68035984 4294901760
-1.4480801 -0.02585113 0.68004596 4294903302
-1.4474761 -0.025503658 0.68043733 4294904844
-1.4464699 -0.025522303 0.68073791 4294905615
-1.4453286 -0.025428941 0.68068171 4294909213
-1.444441 -0.025523877 0.68034816 4294123038
-1.4435977 -0.02513225 0.6802876 4294920521
-1.4384397 -0.025333213 0.68035078 4294836224
-1.4375409 -0.025545133 0.68058157 4294903302
-1.4364809 -0.02554737 0.68073893 4294903816
-1.4354137 -0.025550658 0.68056715 4294901760
-1.4345175 -0.025752585 0.68014383 4294901760
-1.4472107 -0.024776077 0.68023556 4294907928
-1.4465487 -0.024530072 0.68048817 4294906386
-1.4455922 -0.024510976 0.68072814 4294903302
-1.444545 -0.024440177 0.6807245 4294906900
-1.4435915 -0.024421396 0.68063062 4294918465
-1.4415826 -0.02433363 0.68047905 4294913582
-1.4405642 -0.024389371 0.68048739 4294905358
-1.4394549 -0.024474235 0.68056786 4294903816
-1.4385933 -0.024557848 0.68066096 4294903816
-1.4375675 -0.024555866 0.68075871 4294904073
-1.4364481 -0.024520459 0.6806134 4294901760
-1.4354405 -0.024538293 0.68016779 4294901760
-1.4462488 -0.023837533 0.68023556 4294908699
-1.445465 -0.023565065 0.68044806 4294906643
-1.4445029 -0.023412744 0.68064624 4294903302
-1.4434997 -0.02347777 0.68072891 4294905358
-1.442482 -0.02352793 0.68073684 4294909213
-1.4414966 -0.023453627 0.68073982 4294909213
-1.4404776 -0.023541478 0.6807279 4294906643
-1.4394584 -0.023498854 0.68074483 4294903816
-1.4385158 -0.023467433 0.68068606 4294902274
-1.4375511 -0.023637844 0.68058968 4294901760
-1.4365543 -0.023583308 0.68023056 4294901760
-1.4450957 -0.022967147 0.68013912 4294908956
-1.4444227 -0.022754855 0.68027502 4294905101
-1.4434361 -0.022570856 0.68044448 4294902531
-1.4424721 -0.02249133 0.6805163 4294901760
-1.4415203 -0.022517713 0.68058497 4294901760
-1.4405355 -0.022498038 0.68054938 4294901760
-1.4395858 -0.022555124 0.6804986 4294901760
-1.4385778 -0.022669705 0.68038654 4294901760
-1.4378176 -0.022893663 0.68030262 4294901760
-1.4415354 -0.021982396 0.68016118 4294901760
-1.4772195 -0.030123154 0.68153638 4294705666
-1.4766507 -0.030575093 0.68146193 4292476928
-1.4774207 -0.029519195 0.68140268 4294902531
-1.4772778 -0.02866336 0.68140984 4294901760
-1.4767704 -0.028151732 0.68151194 4294901760
-1.4751995 -0.028027896 0.68151307 4294049792
-1.4762102 -0.027934382 0.68117911 4294901760
-1.4757494 -0.02794545 0.68156201 4294901760
-1.4771621 -0.030180961 0.68241489 4294115328
-1.4768784 -0.030474542 0.6827178 4292476928
-1.4773983 -0.02945745 0.68240285 4294901760
-1.4772252 -0.028624881 0.68250281 4294901760
-1.4767429 -0.028143501 0.68257874 4294901760
-1.4762815 -0.027965309 0.68261653 4294901760
-1.4771858 -0.030150145 0.68353873 4294049792
-1.4767164 -0.030555787 0.68339777 4291887104
-1.4773911 -0.029508185 0.68346339 4294901760
-1.4772495 -0.028653953 0.68349123 4294901760
-1.4767084 -0.028130725 0.68355805 4294901760
-1.4752293 -0.028024938 0.68324262 4294049792
-1.4760327 -0.027941316 0.68304098 4294901760
-1.4757731 -0.02794371 0.68328488 4294901760
-1.4771805 -0.030160179 0.68453997 4294311936
-1.4767851 -0.030525848 0.68458623 4291887104
-1.4773964 -0.029479673 0.68442434 4294901760
-1.4772384 -0.028644098 0.68447691 4294901760
-1.476787 -0.028164661 0.68464357 4294901760
-1.4752588 -0.028021973 0.68494928 4294574080
-1.4762367 -0.027958373 0.68442404 4294901760
-1.4759445 -0.027923938 0.68496609 4294901760
-1.4771285 -0.03021588 0.6854037 4294180864
-1.4773918 -0.029486906 0.68549067 4294901760
-1.4772279 -0.028610267 0.68547606 4294901760
-1.4767077 -0.028123643 0.68546313 4294901760
-1.4763558 -0.027975069 0.6858741 4294901760
-1.4757563 -0.02793007 0.68511128 4294574080
-1.4771783 -0.030145749 0.68661028 4294180864
-1.4767728 -0.030521823 0.68645394 4292476928
-1.4774064 -0.029461926 0.68645632 4294901760
-1.4772519 -0.028662927 0.68642163 4294901760
-1.4767698 -0.028156767 0.68654472 4294901760
-1.475288 -0.028019052 0.68663335 4294639616
-1.476151 -0.027939992 0.68633133 4294901760
-1.4758658 -0.027927436 0.68670815 4294770688
-1.4771605 -0.03019096 0.68749386 4294377472
-1.4767736 -0.030523729 0.68760192 4292214784
-1.4773914 -0.029500695 0.68744218 4294901760
-1.4772278 -0.028617388 0.68750113 4294901760
-1.4767628 -0.028156806 0.68749344 4294901760
-1.4763101 -0.02796839 0.68763596 4294901760
-1.4771792 -0.030132577 0.68838072 4294115585
-1.4765148 -0.030371569 0.68848705 4294574851
-1.4755419 -0.030398387 0.68851364 4294902788
-1.4773383 -0.029426139 0.68835008 4294902017
-1.4765165 -0.029510796 0.6885137 4294902788
-1.4755676 -0.029508064 0.68851364 4294902788
-1.4747028 -0.02947389 0.68851376 4294902788
-1.4772452 -0.028698599 0.68832177 4294902017
-1.4765822 -0.028438497 0.68845159 4294902531
-1.4755417 -0.028535783 0.68851352 4294902788
-1.474871 -0.028748902 0.68851358 4294902788
-1.4761163 -0.027930889 0.68809783 4294901760
-1.4757773 -0.027933881 0.68841743 4294902788
